-644.6187 540.8731 21.3309
-638.9412 529.1425 12.57652
-661.6744 542.1931 20.08902
-676.0562 529.575 21.46684
-524.3912 617.6025 11.54527
-524.6762 607.3969 1.983398
-481.7825 640.5818 10.99184
-543.0112 566.1694 -1.549414
-548.25 569.7219 -13.90035
-510.7244 651.3344 17.10933
-469.9625 667.1887 9.05121
-466.7481 676.2162 12.47121
-453.325 637.9262 -1.706602
-442.1563 643.665 7.820273
-475.5494 621.455 2.488711
-438.5969 678.1287 14.21715
-397.5894 683.4912 5.079336
-447.7081 686.8112 13.95621
-407.6662 709.7756 6.873086
-396.2275 760.5825 -5.625039
-403.2287 713.6381 5.755898
-407.9825 762.7975 2.202148
-396.6656 813.6741 -7.891914
-412.7337 787.3706 3.551211
-422.6894 821.6278 3.759648
-419.7844 857.5419 -7.353789
-446.8387 872.0818 1.230586
-420.1494 652.56 -10.87566
-378.525 680.7344 -8.866914
-454.47 640.535 -7.385039
-506.7006 611.0406 2.871836
-448.5094 639.5419 -15.06129
-398.5031 671.1875 -23.48879
-377.0556 685.1575 -24.29098
-383.9169 691.1112 -38.50848
-359.885 710.1897 -16.1566
-372.48 700.7775 -3.771914
-495.7256 601.215 -7.282227
-398.4844 662.3862 -24.9816
-368.95 740.2731 -11.49316
-361.8312 749.3 -22.08848
-370.0144 756.2759 -8.692226
-378.7838 805.2841 -28.84816
-385.5338 787.2553 -32.69691
-426.9825 878.9656 -34.66004
-377.4931 740.6315 -36.09004
-385.1919 805.185 -13.47285
-401.06 843.5981 -23.03473
-404.9475 852.6031 -18.44941
-419.3825 854.7525 -13.55285
-440.125 896.6206 -28.8741
-458.8281 887.2987 -1.093164
-438.1706 867.44 -37.26066
-410.4044 826.1425 -35.45254
-431.73 835.555 -41.95348
-418.1137 820.2481 -32.90973
-395.33 782.6368 -36.6716
-445.6662 821.62 -52.34691
-401.1381 745.4075 -53.67629
-388.2594 729.0025 -56.20035
-387.885 706.2506 -56.26223
-405.7244 673.6437 -41.41848
-428.585 652.3025 -27.0091
-405.8987 673.4325 -51.53504
-466.6012 647.9063 -45.26598
-501.8206 618.4937 -24.25035
-514.325 621.1469 -39.64754
-438.9162 665.1044 -46.15379
-449.82 647.3037 -36.85504
-452.0394 649.9169 -25.44504
-479.3025 618.8925 -21.05379
-495.9312 623.6794 -20.00316
-516.8862 598.1887 -6.848164
-531.5687 611.7437 -13.44223
-546.6412 582.2813 -17.07066
-543.9418 590.8362 -34.97191
-553.1894 567.9462 -22.5041
-565.6769 556.9331 -27.59973
-523.09 602.4088 -48.92566
-619.03 533.21 -13.17316
-567.8056 550.1356 -12.7441
-596.0668 541.3125 -3.828476
-632.3337 528.0093 -1.781914
-642.5643 517.8631 7.259336
-671.4418 510.1187 5.653399
-699.3644 516.8412 19.32183
-705.9125 513.1456 11.60309
-688.3243 519.3193 0.822148
-705.275 514.1069 -1.077852
-703.4175 522.2256 -7.758476
-780.75 553.0419 -2.996602
-755.4525 524.8631 -13.79598
-702.085 519.1688 -15.55941
-641.5137 530.1806 -22.34348
-880.2419 594.8887 -12.47316
-848.2194 564.1594 -15.24348
-864.9194 581.0881 -18.02316
-810.7888 543.3369 -18.39629
-767.1625 543.6887 -11.82598
-765.6175 523.6281 -18.54316
-583.7625 544.565 -29.44566
-563.1069 572.0388 -49.57535
-850.3056 558.6387 -20.65723
-909.7987 600.24 -25.21004
-711.7643 635.3706 32.87777
-697.4487 678.0319 30.84777
-670.9 631.7869 34.30809
-721.3069 651.8831 25.77559
-418.3956 709.0743 5.024336
-638.7781 649.4887 27.40996
-589.5531 648.0143 19.02559
-586.6 632.3881 10.15527
-560.2144 650.3119 21.76059
-578.3725 726.1525 26.81059
-523.3662 696.8347 21.8609
-461.2387 708.0065 8.179961
-610.0193 687.8893 30.33371
-629.3344 731.3871 34.85308
-617.1581 675.2256 26.90277
-648.6418 732.9412 28.12058
-655.0469 679.665 25.66121
-685.47 727.18 28.98059
-722.9256 667.785 31.00371
-663.4625 744.2025 32.02652
-701.6219 770.7787 28.09965
-663.9088 782.2403 30.5734
-597.0906 764.7944 27.68465
-721.1544 730.4631 27.86308
-750.8743 771.1431 23.79871
-758.7844 775.7975 26.05277
-667.4362 830.4315 24.87246
-569.9981 809.105 24.62715
-586.3425 772.3387 28.03371
-758.6462 744.8463 23.67621
-734.83 752.9788 21.18559
-685.2412 837.4353 20.33402
-784.7981 724.4594 24.20777
-605.5012 846.1765 20.73465
-618.3143 876.3718 19.9909
-664.4337 851.1443 24.79402
-661.9518 887.5131 17.56121
-705.065 933.3281 7.254336
-754.64 915.9753 3.488086
-804.4487 800.5494 20.18996
-838.7456 754.4297 19.12746
-744.5081 651.6981 33.59746
-634.2188 940.8981 6.579336
-792.5012 879.3734 8.291836
-835.3312 842.5665 9.364023
-669.9069 954.5853 2.096211
-894.7131 800.7766 4.883399
-764.6525 635.2762 33.1809
-704.9256 638.2938 32.77121
-421.9787 721.7288 14.03996
-441.965 758.0631 16.96434
-454.75 725.0378 3.430898
-470.9381 736.499 13.6759
-531.0306 733.8538 24.39527
-488.9494 752.6787 17.12934
-520.8206 827.9894 17.57215
-483.3012 782.8438 17.86683
-472.4431 802.5159 20.62683
-491.4931 806.88 23.01402
-479.4644 847.4134 14.63746
-525.1237 837.9972 20.2759
-562.2512 873.2347 18.97058
-492.5119 904.7944 1.518711
-527.0606 903.4418 6.925898
-497.9587 924.6072 -7.199727
-556.4531 935.5818 0.350273
-545.6837 963.8494 -6.451289
-593.5956 955.9562 -1.928477
-589.5743 975.3681 -5.010352
-600.6343 997.2969 -12.15066
-894.7731 599.1343 -21.56316
-922.8087 624.7825 -24.53348
-916.7281 605.0012 -14.0816
-925.5556 623.1737 -14.86691
-940.8025 623.8575 -1.826602
242.1687 -583.4937 164.9621
240.7244 -583.26 164.7118
243.3575 -584.3694 164.1803
211.1612 -676.715 240.7934
200.1025 -693.56 240.4637
205.3394 -686.1588 241.3171
222.9425 -554.2225 242.1896
222.0056 -557.4169 242.2293
225.94 -551.8818 242.6906
205.1225 -705.6125 176.094
211.4025 -701.7444 173.1156
211.4437 -703.5344 177.5459
172.3306 -510.4906 163.464
156.4962 -515.745 162.4925
152.5469 -518.1287 161.7896
87.95062 -567.3837 151.7928
104.7725 -549.3125 153.2231
101.9081 -553.3525 152.6459
98.22562 -557.8737 155.1787
99.54375 -551.8037 158.6237
94.02937 -557.42 156.2418
99.58375 -552.0162 161.8403
86.5925 -571.4063 155.8759
83.70375 -581.6069 152.4331
88.51437 -565.4937 160.2125
85.69625 -591.6219 156.0593
84.38 -589.0675 153.0647
86.69812 -604.5506 154.4884
98.63375 -559.9994 162.0803
102.7462 -555.0463 163.8518
102.3925 -554.7731 166.9153
84.77562 -578.8762 159.7365
86.1575 -610.8887 158.5484
89.46 -614.7081 155.2706
99.67625 -566.2769 161.964
85.1525 -597.7744 159.7059
91.20187 -573.9275 161.619
90.01625 -619.8625 158.2265
96.78062 -612.3994 159.6015
93.20499 -601.4156 161.5143
87.93375 -621.5287 156.0056
90.00625 -616.6918 155.3831
87.58562 -626.7018 159.6897
88.23875 -634.4094 156.9793
90.4575 -642.59 158.0681
90.2125 -640.935 161.3549
94.84438 -623.705 160.9328
100.5006 -614.0675 162.3843
92.69187 -649.9319 161.2859
96.975 -653.6293 158.8221
102.7806 -659.395 161.6371
117.3369 -666.5294 160.2415
90.55563 -622.9713 163.6122
92.52625 -622.8243 166.4084
96.01875 -632.1494 161.6378
95.12 -644.8081 160.7553
91.4225 -643.9587 164.3922
98.2175 -654.8131 164.2506
94.82687 -639.04 169.6593
97.86562 -624.7219 176.0159
94.25125 -605.2881 167.2215
108.6831 -656.0331 175.7115
102.1394 -649.5643 174.744
124.7656 -670.1737 171.5956
89.3725 -604.8438 163.8046
109.5344 -661.7206 163.0165
142.6331 -682.8481 164.529
131.6956 -674.3943 160.7787
91.55062 -602.3344 175.0696
95.75437 -605.5237 177.0478
88.84 -590.3625 168.8403
145.9206 -685.1656 167.4518
135.8 -675.3762 170.8015
142.115 -679.7525 165.8709
156.2044 -687.9794 166.0121
156.6687 -687.0681 169.9806
182.9987 -704.0869 171.4606
164.4881 -693.9506 166.9075
156.2663 -680.7856 165.5618
147.3419 -684.9688 161.5775
159.75 -686.7894 163.9256
137.7469 -676.4912 158.9009
167.0969 -690.9006 164.2975
160.2981 -688.3812 160.0537
140.4825 -667.6719 157.0881
126.5337 -672.7938 159.1915
154.3256 -676.2275 157.3159
178.9756 -687.8494 160.6059
175.6056 -689.6968 160.8275
192.0675 -687.1937 163.9943
185.0587 -697.0237 165.9271
190.9944 -690.8662 165.085
190.3275 -692.7581 165.8928
189.4512 -697.4456 167.1934
189.1162 -700.1337 168.3637
188.6056 -703.1293 168.5606
188.2744 -703.9906 170.0475
187.8438 -705.0281 171.8137
172.2875 -689.3912 166.979
175.7494 -699.8325 166.459
197.2862 -706.5587 174.6781
198.5938 -708.655 178.2343
174.5331 -696.8506 177.6178
125.9531 -668.4037 176.54
207.935 -705.4319 179.7168
210.9388 -704.485 183.1303
188.07 -701.6287 179.8028
161.515 -686.4725 178.9453
126.915 -666.8875 177.5765
200.6606 -705.0969 183.3556
175.1025 -696.0018 181.0084
167.7287 -690.1556 184.0037
162.9756 -685.5706 181.8559
146.9012 -678.955 184.9103
121.1994 -665.105 188.79
112.3469 -655.8075 178.32
107.3975 -654.3081 182.8078
104.415 -649.2731 179.4203
103.0088 -646.0643 185.1
105.2719 -653.5431 190.7522
96.26688 -641.775 195.4193
181.9006 -696.2025 190.3865
159.8475 -684.8737 190.8137
142.2825 -677.8006 190.5231
199.7025 -699.3781 191.8378
175.9187 -694.6544 192.2696
212.8469 -695.8212 194.0156
193.9275 -699.0637 194.4593
219.4 -698.6787 186.0043
138.595 -674.3125 193.1393
133.08 -675.0256 192.61
119.1075 -666.555 189.4587
108.9319 -659.245 195.9093
123.845 -670.7913 196.6446
118.6031 -672.5431 202.4078
135.9981 -677.0369 195.3696
181.2525 -697.4462 194.9906
137.5756 -679.3137 198.7968
201.5819 -699.0537 197.404
172.1194 -692.9806 196.8793
97.06375 -656.9493 202.1237
109.22 -665.9981 200.4171
95.15812 -665.4094 205.5675
94.18437 -643.09 196.4112
92.47437 -627.3456 193.5647
92.84 -635.525 191.9628
97.8675 -638.4694 191.6109
97.43687 -627.5212 191.9109
96.88375 -626.0125 184.2175
89.9225 -645.875 205.5475
93.87875 -624.0262 189.7853
98.9625 -622.3369 181.3187
98.89125 -636.35 179.45
104.8213 -643.725 177.2871
101.3462 -642.0525 175.375
92.88562 -602.7075 180.1687
92.84687 -605.8725 189.1143
93.50125 -592.2213 191.2734
91.765 -586.3525 178.5237
94.2375 -580.3137 177.109
91.4375 -605.595 192.5046
99.79063 -568.7356 179.7587
90.96188 -585.8731 175.5609
89.835 -577.5131 169.2159
96.9075 -568.8644 175.6193
93.4375 -589.6563 195.0762
108.4437 -560.0662 178.6606
106.3256 -558.2637 177.1696
109.6437 -560.8387 185.9156
98.345 -578.0075 187.6068
112.2569 -562.7363 192.0884
97.215 -559.53 166.5831
91.87 -566.9456 164.2468
102.2256 -571.3475 190.5262
104.62 -572.6638 191.9768
111.6906 -562.2462 195.6503
113.3862 -563.4644 199.5287
89.87187 -584.5331 162.9375
92.26875 -591.8943 166.6272
93.48125 -583.8669 161.99
85.26688 -596.99 162.1781
98.94688 -582.845 197.7715
106.2038 -579.4813 204.5275
114.5775 -564.2706 206.16
110.8187 -562.0019 210.9928
112.4075 -565.165 213.1181
112.3994 -562.9587 211.9225
109.4287 -561.2813 215.9493
90.695 -604.1719 195.9659
89.10812 -630.4856 200.2659
103.3981 -571.4844 216.4184
112.0194 -562.6663 219.7609
95.44375 -588.9719 213.3068
95.2725 -591.7744 209.0921
96.27625 -597.2456 202.5359
110.2287 -561.4418 225.3893
102.3431 -579.9475 208.5115
105.4087 -583.5275 207.9621
107.3962 -584.1137 204.1768
90.23062 -631.8287 202.0434
83.91875 -632.9169 210.0712
91.31937 -602.005 199.8412
91.89188 -614.6088 202.1815
83.74625 -651.4206 208.0565
84.60625 -632.2662 206.1096
89.04187 -608.5737 205.859
91.5375 -614.0269 206.0093
81.79875 -626.4138 209.0875
88.56187 -599.6212 212.0018
83.55312 -613.85 212.815
81.57125 -614.0994 215.5962
84.50562 -619.3631 214.784
80.18813 -619.1968 219.2475
72.07687 -637.8081 218.5353
73.25125 -652.1606 215.1237
102.9587 -575.6825 218.0034
102.3331 -566.7437 220.45
90.67625 -592.0787 220.7668
102.3581 -567.6013 222.5806
98.93375 -555.5388 229.47
94.415 -584.2125 221.3818
95.22562 -570.23 222.4187
92.59187 -569.6175 229.8934
98.68125 -555.2731 232.1131
90.29 -581.4163 223.8643
89.69688 -582.9788 226.879
94.68 -586.9012 223.7887
91.36124 -565.6962 231.7578
91.84375 -567.555 235.4825
100.7062 -555.6113 238.7671
88.51937 -588.59 221.735
86.07125 -578.9813 235.0412
80.525 -602.8787 236.2915
86.45625 -585.5494 231.295
80.58375 -603.0525 223.85
99.95875 -563.1393 240.5318
100.3006 -555.4756 242.044
103.9812 -557.2175 243.8756
90.50187 -576.4912 239.7968
96.77187 -567.4806 244.3462
96.09624 -575.7331 244.6096
104.7087 -569.4669 246.3128
98.54 -582.835 247.6034
94.1875 -598.1194 245.8234
87.95625 -589.6663 239.6962
89.72312 -582.4219 243.895
87.4425 -602.2744 242.2924
92.60812 -604.5212 244.4584
87.33125 -615.835 243.379
81.35938 -620.4656 239.5253
80.84812 -630.6063 241.2215
76.11 -644.7275 238.4028
68.46062 -650.2437 235.1112
74.77438 -653.0793 235.994
77.28 -656.5319 237.329
65.59125 -659.5894 229.1309
72.42875 -661.2625 235.1143
88.105 -600.4719 239.7137
77.95438 -624.0693 236.7018
81.25999 -665.9088 238.3703
87.91875 -671.61 237.0612
82.01187 -661.5537 239.2418
94.5875 -665.3768 238.1312
74.83062 -669.3956 235.6031
73.785 -634.6244 233.2484
75.22063 -618.5619 234.8046
75.87 -614.7437 228.4012
63.24687 -652.2075 229.53
82.4 -602.1737 228.28
75.27312 -633.15 228.8593
76.70562 -612.9518 222.2987
84.27 -605.5025 221.4143
81.21687 -607.8087 218.6671
78.30062 -633.0687 224.9246
80.52875 -630.515 221.6687
72.8725 -638.3538 222.3603
67.66125 -632.0131 224.6221
66.67687 -640.2956 227.1956
63.78437 -658.4612 225.3106
63.11375 -645.1069 224.095
65.35875 -649.82 219.6168
70.38438 -650.0438 219.7984
77.51625 -670.3563 220.8546
69.8125 -661.9063 220.4878
69.80437 -665.1293 223.5756
83.2275 -658.7819 212.0093
90.02438 -666.9181 208.1784
92.67374 -671.5831 212.8325
106.4869 -678.3025 213.4853
100.9475 -678.6887 211.2809
84.13499 -677.1125 221.8531
108.7669 -672.9375 203.8206
124.4362 -681.5481 210.6775
117.6262 -684.3787 213.0181
120.2725 -683.3181 214.6884
130.6606 -690.285 213.2756
123.7062 -688.2825 210.1743
138.6237 -681.3906 206.7
133.2487 -689.1375 210.2878
144.625 -689.1 205.0103
142.9919 -683.9844 203.8368
160.5031 -689.5112 199.6265
155.7906 -687.0862 197.254
95.83375 -679.12 218.0103
110.1469 -678.36 217.2062
163.2 -691.6912 206.1
161.0044 -687.6968 199.03
178.7119 -697.0294 199.8156
181.2575 -696.2693 201.7034
192.3913 -699.9044 198.5037
87.90562 -677.7387 224.1712
92.93 -681.4337 225.015
74.2175 -663.5737 225.904
69.62125 -668.8525 228.6462
94.425 -682.5712 232.4812
213.7112 -695.6212 202.09
223.7144 -688.6081 199.1475
115.9625 -682.6025 222.2075
131.6594 -684.3719 219.7653
144.4037 -690.8312 222.3196
143.3463 -689.9788 216.7528
150.1569 -698.915 214.6259
202.7031 -698.8344 204.2962
215.9006 -690.8768 206.3387
192.2125 -697.7825 206.6346
229.7344 -682.7512 205.2943
206.0475 -696.5587 206.8068
180.7744 -693.4175 207.4
192.7537 -703.1968 211.0553
176.9337 -696.0731 206.8031
204.8237 -707.9688 215.815
180.3256 -697.5469 211.3003
177.6006 -701.1412 210.275
165.3375 -695.7938 209.1018
189.0019 -708.5656 214.9712
189.9175 -708.8969 217.4506
218.8356 -701.6862 217.7093
156.3112 -696.9919 214.1168
213.9444 -692.24 210.1406
221.9975 -688.6318 211.0262
233.1287 -676.2625 206.4009
155.5244 -687.2244 208.2362
155.2838 -693.3837 208.4978
151.065 -698.0087 211.9965
230.2519 -684.9012 214.5743
240.1787 -673.1013 202.2765
165.845 -705.6981 218.9862
154.7694 -699.1456 227.864
129.8469 -687.7112 224.4628
123.6875 -686.08 226.8443
124.1525 -688.9543 227.6015
121.8381 -689.0118 230.8925
140.0369 -691.2263 228.7197
143.6781 -695.6356 227.6218
150.6637 -701.6613 233.1121
133.2319 -679.9525 237.7409
152.2919 -690.1681 237.0143
115.5769 -684.2863 233.25
98.57249 -672.01 235.754
105.7256 -667.2762 238.2459
114.2981 -677.5756 236.8081
124.7537 -675.4556 236.8696
111.0287 -666.5925 237.2806
132.1387 -670.1144 237.6084
120.7937 -663.8612 241.0962
110.6087 -659.9625 244.1396
103.5156 -652.2437 245.61
100.8662 -644.5919 245.7803
111.555 -650.5225 247.6034
116.6906 -651.8143 245.8962
123.95 -654.8687 243.6653
134.6263 -658.42 243.7003
137.2756 -660.1075 242.5931
163.0531 -672.3406 243.6012
140.3244 -673.4969 239.2456
156.5094 -676.1137 240.1806
160.3037 -682.5012 240.1846
167.2825 -674.5168 241.899
171.4275 -676.6381 243.9534
167.1625 -683.7518 241.32
159.6712 -697.6187 237.2053
156.5638 -701.2144 236.3212
168.7363 -702.63 237.9031
188.0075 -707.7313 237.0656
156.5687 -708.1225 233.1215
170.4287 -711.5988 236.3459
173.8138 -716.8569 229.9053
185.7387 -713.5413 234.585
190.43 -709.05 236.9218
163.7188 -715.1625 229.2825
159.5488 -713.8475 227.1687
187.1512 -716.2681 229.4834
175.685 -716.6737 223.7225
169.3875 -710.7406 223.0446
184.9437 -718.2119 225.9474
189.7281 -713.4543 224.4293
162.6825 -709.4462 221.6572
193.5813 -713.2025 221.0062
197.6694 -713.2587 234.195
194.4575 -718.1312 225.3715
203.4056 -713.8094 224.5956
205.3181 -709.7331 221.059
195.1556 -702.245 239.2006
215.0287 -683.6831 240.9509
211.4631 -713.5675 228.3549
208.2381 -703.0375 236.9771
209.5062 -708.4631 231.8212
212.1844 -709.3312 225.6674
215.96 -710.1387 223.2556
218.7081 -698.95 234.8665
223.2306 -703.4994 230.7028
215.9212 -709.3606 230.3646
222.8025 -704.63 225.1103
220.5506 -702.3075 221.19
220.8862 -676.3875 239.67
215.0569 -707.62 217.7959
225.0119 -692.7506 219.1837
224.6019 -698.5575 224.284
263.355 -669.5519 224.6824
234.1888 -685.2725 219.9703
225.3994 -688.6762 217.4547
229.3062 -688.0762 228.1512
244.3431 -682.3488 227.0296
231.4925 -676.0162 211.9028
248.5512 -663.1181 207.9056
246.9538 -659.6487 202.3362
237.6669 -671.4744 200.7487
234.0125 -680.8331 199.9837
240.7569 -671.1837 196.265
227.0775 -686.3837 196.3578
228.3412 -681.0037 195.5712
249.9219 -672.9869 218.3737
248.0969 -666.3513 212.4518
253.0919 -670.02 220.1725
257.0544 -655.4775 210.2965
228.86 -685.82 194.4025
226.56 -689.8837 188.1156
230.0994 -682.3575 192.8853
256.88 -668.1606 217.7512
260.4106 -661.295 221.0384
261.8244 -661.2756 215.2975
263.8387 -658.8444 218.3859
268.4362 -654.3237 220.179
266.6769 -668.9506 230.5043
273.5375 -646.0175 218.9346
262.3213 -651.9481 211.8737
260.9344 -670.1594 229.03
257.1938 -647.7018 206.4865
249.5987 -684.475 228.1981
236.5687 -692.4412 232.1603
258.9625 -675.6443 230.6331
228.79 -686.2131 231.7296
225.1687 -682.5 234.8684
234.6831 -684.5887 234.0421
253.7175 -674.395 235.5559
229.7188 -674.0062 237.6437
241.1875 -672.5931 238.9115
225.685 -666.9981 241.3146
220.4944 -664.9 243.0175
226.8062 -655.17 243.8315
254.7462 -668.4381 233.265
249.4606 -670.2344 236.4321
242.7269 -666.8031 238.1021
236.0719 -667.8994 241.3265
231.3062 -658.5187 241.09
242.3387 -659.82 242.8506
250.4931 -664.8218 240.6131
245.5644 -644.4763 243.41
233.1419 -643.1706 244.1721
259.9144 -672.3218 234.0537
272.5594 -654.6337 234.6493
261.2287 -664.4819 235.9046
263.1837 -644.2731 241.7818
237.31 -632.4644 241.7225
238.73 -623.565 244.5275
243.915 -612.7031 241.9384
253.8687 -616.0244 241.8143
248.9475 -598.9456 243.4662
256.8163 -637.7662 242.1403
245.2525 -641.2931 241.9584
248.2587 -634.5656 242.3618
268.495 -630.3594 239.9093
262.6744 -627.1462 239.0703
260.7025 -627.135 241.3537
269.3731 -616.6675 238.9246
274.1219 -630.2662 234.2096
267.9637 -606.4731 239.7809
264.8519 -594.1713 239.3759
260.6681 -584.6088 239.9521
249.5237 -589.4775 242.0165
270.3712 -610.3625 230.13
260.6269 -584.4769 231.9934
274.3006 -650.8675 228.5184
254.6387 -583.8475 242.1425
234.315 -581.6775 244.1212
264.5319 -576.7431 236.5262
255.7869 -570.4 241.6253
240.145 -577.43 242.5631
233.6575 -567.2587 243.9187
239.0488 -560.3225 243.0018
221.6881 -576.0944 247.1121
218.9294 -575.08 247.2303
220.9631 -564.9518 243.6353
222.1612 -543.9775 241.9481
215.8369 -547.1588 241.1481
210.725 -536.8394 242.4737
203.665 -541.4869 242.7618
238.2537 -545.8481 238.0262
217.0925 -531.665 238.4259
240.0887 -539.22 231.3234
241.8906 -553.7875 237.5153
246.0537 -554.3438 238.7946
248.3031 -550.6156 234.699
248.6369 -559.7806 238.1287
255.055 -561.9075 237.9425
201.1681 -531.4456 239.7518
203.985 -529.8106 235.3178
186.6344 -522.5569 241.1059
219.6006 -528.1125 231.734
219.0369 -530.45 226.7131
188.7188 -533.2169 243.7749
176.4162 -523.6956 241.669
173.2287 -524.2863 243.5406
181.9625 -513.5406 236.0746
178.5662 -511.0706 240.4253
191.0331 -517.3456 236.7815
167.7156 -516.0406 244.7018
158.5106 -504.5938 241.6696
166.6944 -520.3556 244.8787
152.4 -512.3056 243.4934
134.5656 -517.95 240.7862
150.4063 -511.6512 243.2631
136.2437 -521.8488 243.9859
118.4919 -527.52 242.2765
129.6931 -527.6406 245.6134
121.0931 -536.745 247.1475
109.3288 -542.3325 244.2246
110.0144 -553.0668 248.114
171.3375 -506.1219 233.3581
155.4925 -498.43 235.9996
181.1844 -514.4037 233.8268
199.7244 -524.9769 236.0756
180.1675 -512.4831 230.6737
161.4325 -502.9519 229.2534
153.3719 -498.9088 229.8281
152.3056 -502.1837 224.1234
143.0219 -498.0469 234.5612
148.5244 -500.0975 239.1059
200.4088 -519.9875 231.5531
164.0444 -501.3987 228.2315
135.6787 -506.0987 237.7612
131.325 -505.63 233.8725
131.1169 -509.235 239.6434
117.1531 -520.7813 233.4284
123.6787 -519.6738 230.9225
103.195 -548.5737 233.8006
136.2538 -508.9881 227.4771
118.8387 -522.5731 239.7171
109.6994 -534.3037 237.3187
107.8169 -537.0419 239.584
109.8925 -541.7719 241.5331
100.3769 -555.6525 236.8456
107.455 -559.4369 247.6993
108.5819 -549.9581 232.0553
112.6344 -556.1943 228.4146
117.3244 -552.9337 220.2687
123.275 -544.2525 223.6078
115.1525 -549.5806 214.2715
116.9344 -542.3862 228.7278
116.2219 -534.1663 231.2553
119.4594 -535.4437 231.9428
126.6806 -521.8731 228.9415
122.2937 -546.8281 217.0334
132.5656 -520.8625 216.2959
138.4075 -517.1943 220.1137
124.4637 -536.8619 212.0006
127.6762 -525.8444 211.9743
136.525 -520.5068 213.2206
141.0056 -510.3875 218.475
147.8256 -506.2393 217.4106
136.9606 -512.6869 215.0418
161.3637 -505.75 221.8456
150.0169 -503.0806 215.4678
161.1175 -505.8587 217.6406
172.3669 -508.7912 226.5543
129.1763 -543.4875 207.3546
119.6869 -548.7231 205.6853
126.1906 -544.7369 203.9446
144.7356 -519.4006 205.2197
148.5869 -512.0225 207.4131
131.1362 -538.2244 198.7212
146.6569 -521.6306 202.1859
121.0737 -549.905 195.3506
128.6462 -544.5087 193.8831
164.1894 -510.2169 210.1331
159.6962 -512.7325 206.4787
156.3581 -514.6081 203.8215
151.2131 -519.9975 199.4975
177.7712 -522.2331 199.9793
163.0725 -517.1 200.0906
170.7 -517.6125 206.8356
145.5075 -523.7444 195.6518
130.7619 -539.9356 192.775
150.6681 -518.6563 192.3434
122.9212 -545.5762 182.8549
148.2625 -523.945 191.1496
161.19 -516.6387 192.7825
174.8581 -518.4 194.0325
176.0006 -515.195 185.8871
145.325 -525.9912 181.7787
110.6731 -556.1094 178.43
113.6531 -554.9781 185.1021
157.0387 -518.5906 180.3803
165.6012 -515.8037 182.0318
111.4275 -560.07 180.684
120.8156 -543.6031 177.1593
150.39 -520.66 178.6609
117.7919 -543.92 170.4934
160.3212 -512.9925 176.3878
151.9037 -515.29 171.3353
117.015 -538.7637 167.1037
123.4444 -536.3131 168.0978
119.0912 -543.0394 163.484
103.3162 -547.0475 161.2093
121.8712 -535.2794 163.3378
106.0294 -545.2419 156.119
115.6106 -540.7681 154.8196
133.5431 -528.8737 161.5075
155.4644 -512.6443 167.2362
133.8625 -530.94 158.0981
183.9487 -509.0556 168.8193
186.3 -511.6362 164.964
184.7612 -511.6687 176.1128
215.0519 -515.0662 173.9503
198.8944 -513.1356 168.624
211.3425 -516.9994 168.7493
205.8694 -518.7381 169.8312
216.7687 -516.2075 171.1559
219.1769 -527.4962 171.0034
178.3325 -515.1063 180.4065
188.9238 -516.1794 180.9115
211.5725 -519.2913 182.1356
180.9112 -519.4975 181.8946
195.14 -516.9644 185.6821
218.92 -525.0668 186.1181
225.2225 -526.2188 182.2603
196.4587 -519.7188 188.4381
228.855 -527.3918 173.9996
230.1738 -527.39 171.8662
182.0006 -518.8112 190.1034
211.645 -523.9056 194.6937
206.2344 -519.7231 189.4881
178.385 -522.1075 194.6959
184.1375 -520.19 195.91
223.4919 -525.4381 188.7118
230.7312 -532.2668 186.76
230.1431 -532.5037 192.8353
237.3037 -544.6606 195.4815
223.6512 -529.8262 184.2822
230.6531 -531.2562 182.9525
222.5187 -528.025 196.9971
206.0525 -524.0413 200.0121
191.7012 -522.3 195.3956
191.3856 -524.2119 200.4046
188.6581 -521.7194 201.5237
202.155 -529.1187 207.4825
183.8837 -523.3044 204.4943
197.7919 -529.4631 205.6931
188.4362 -527.8056 207.6049
185.8212 -526.8318 212.3243
197.1381 -532.1531 212.2553
228.5169 -533.5156 201.5218
225.9125 -532.9012 206.4121
233.2 -536.8756 197.1343
180.4075 -521.09 212.689
183.8831 -520.5206 217.5712
179.8237 -519.7506 218.3137
170.5494 -511.7393 214.8371
196.5794 -529.48 218.8218
195.685 -525.0619 225.2371
169.6756 -514.3818 219.0787
177.3144 -514.4594 221.9806
177.3012 -515.4931 226.8021
203.4944 -528.91 214.0087
191.6794 -518.2487 226.86
193.2137 -524.15 227.3087
205.0938 -525.8875 231.3315
203.37 -532.8212 229.0381
214.8412 -532.2162 225.9953
211.1681 -533.0768 219.0021
220.1594 -531.7181 223.0043
225.5362 -533.6119 220.2325
242.67 -545.5118 224.46
228.4744 -532.9181 226.0512
236.46 -539.8744 228.9903
246.9887 -548.535 228.7781
252.1806 -549.7668 231.9324
259.5925 -557.1981 230.5528
262.9719 -566.7643 236.1793
264.9906 -568.1725 232.7296
259.6381 -564.0125 228.7634
264.1581 -568.265 227.5259
261.145 -569.2012 225.1521
265.6913 -598.1619 227.5793
269.3706 -585.5631 222.125
261.5713 -568.325 221.7956
247.2644 -551.9031 220.2415
270.3463 -635.9543 224.335
273.8781 -620.7831 222.175
271.6194 -628.8937 221.5921
273.4369 -605.7256 220.3784
265.815 -592.4475 223.6593
260.5338 -571.0969 220.5953
271.3875 -588.4819 219.9743
262.6731 -578.7706 215.815
259.135 -577.3243 217.0371
268.9856 -593.3762 216.2746
240.3769 -545.8256 216.2409
250.4956 -561.0137 214.5359
253.9794 -568.1894 213.0934
232.4262 -536.9406 218.6753
232.4794 -543.1613 209.1312
219.765 -535.7112 211.8487
220.3725 -534.6119 207.8909
245.7537 -559.5969 214.9553
243.7906 -564.4181 212.2562
239.2731 -545.1075 202.1049
247.6619 -563.7931 211.5424
244.7844 -559.7094 205.5637
258.7238 -584.6494 203.9159
253.1506 -572.2894 208.5915
237.91 -545.5856 199.6875
259.1269 -582.9219 213.0643
262.2875 -589.4912 210.2665
267.9862 -596.2043 211.0496
247.7381 -566.9863 201.1481
244.6275 -566.1563 198.3437
253.2556 -574.9119 199.8412
264.9325 -601.7362 210.139
263.4662 -608.8237 202.3922
264.4275 -605.6194 212.7684
272.0744 -605.4612 216.8956
268.6075 -616.5537 217.4984
275.2956 -616.9969 217.0581
275.7356 -620.4881 219.6521
270.7762 -626.1069 217.79
266.1231 -642.3106 211.2568
262.1675 -597.7575 200.0793
258.8687 -598.3112 198.1043
264.3138 -627.6038 209.2271
257.025 -587.0625 197.5715
260.8719 -641.5143 209.6406
261.7737 -640.2525 206.42
261.5819 -627.4443 204.1937
261.6319 -618.3588 196.7087
260.0481 -613.3 198.7924
261.9581 -606.6875 197.4221
254.7656 -645.8712 202.1634
261.1037 -632.1443 198.4753
249.1331 -657.2781 196.1312
257.72 -636.9325 195.8262
243.8387 -661.3687 197.0359
243.4475 -664.0619 191.5587
250.0456 -656.7419 188.7371
239.6544 -670.8737 188.7475
234.3256 -681.5544 190.0621
224.7369 -690.8006 184.6875
215.2494 -698.0463 182.2459
220.13 -699.6987 178.6412
238.7394 -674.2587 185.3515
246.1006 -659.5463 186.8975
253.14 -642.925 190.7696
259.7425 -625.8731 185.509
262.6406 -600.6831 186.0322
259.8306 -597.555 184.6368
256.9719 -582.4506 184.4434
260.9113 -589.4937 182.2228
262.3687 -610.0762 182.5875
249.9506 -645.0925 184.6572
247.4662 -657.2006 183.8656
243.72 -562.4131 189.4771
239.5844 -662.9237 184.1071
243.4063 -564.2213 183.5871
236.9481 -541.1119 184.9856
245.2625 -655.9825 181.1909
239.1725 -668.7162 180.9556
228.8156 -682.5438 174.7678
253.1594 -638.5575 180.7656
221.8562 -698.2737 176.4896
222.535 -690.9894 173.8975
202.8369 -687.4369 166.3268
245.2562 -562.1606 182.0993
258.8594 -626.6162 182.5334
253.2112 -634.9362 178.2509
260.4806 -611.9944 179.1646
247.4287 -637.2394 175.9734
232.2237 -631.2356 169.1706
235.5331 -650.7381 172.505
260.6306 -598.5212 178.4984
234.1137 -662.3987 174.4653
222.6263 -653.8337 168.475
222.9756 -646.165 167.8162
254.8194 -586.3556 175.3653
252.6019 -598.8706 170.3796
256.23 -612.3719 176.9028
253.6331 -609.5469 172.7203
244.4375 -631.355 173.2615
239.7525 -610.6194 167.4034
244.3987 -601.6987 169.8503
246.7287 -563.3281 177.0909
242.6113 -556.9156 172.8603
248.5163 -589.435 170.8265
241.175 -547.7994 176.205
249.3719 -580.0187 171.9553
234.0775 -530.81 181.4646
227.4581 -531.8775 181.4765
235.4281 -532.7813 172.8006
232.555 -540.0494 172.1637
227.8012 -530.4788 169.0322
238.2244 -552.3475 169.7
244.535 -580.5237 168.8121
242.3044 -593.1906 172.4659
237.7412 -598.4037 164.6393
242.8025 -576.8081 164.8128
241.7225 -583.2213 165.145
237.4606 -600.6856 162.9946
231.9787 -559.125 161.5884
235.955 -576.9344 163.1821
227.105 -569.2631 160.63
219.8694 -565.2194 159.7843
224.7062 -547.7062 161.9862
221.7038 -626.9437 165.585
231.2819 -613.0575 162.91
218.4581 -634.4493 164.2984
228.6113 -538.0988 162.4756
226.7887 -539.7056 163.4062
227.275 -537.3237 164.3225
228.9306 -533.4468 165.214
232.6819 -537.2975 164.145
217.7237 -631.53 167.5025
222.6819 -638.4537 166.1018
214.8862 -641.605 163.9718
213.7387 -648.2137 168.2978
214.65 -653.9937 166.5365
204.6619 -660.505 163.9043
230.0206 -530.4493 166.7078
217.5675 -668.8087 169.3734
216.9037 -672.6469 168.0734
211.8544 -660.2987 169.4606
212.475 -672.0637 168.8175
202.4469 -667.6906 166.1065
198.6413 -674.0425 163.1303
200.2775 -669.0081 163.9068
196.5944 -693.7319 166.8937
209.1769 -694.7037 169.8684
229.74 -591.435 247.0812
214.2169 -594.6625 248.375
223.6263 -578.3481 248.0171
226.1931 -597.3337 244.7765
88.915 -659.8962 235.639
86.17812 -654.6125 240.7143
173.1175 -576.4044 150.6959
170.3731 -583.2269 151.5103
168.925 -595.0662 149.7525
154.4525 -515.4644 242.5621
212.3362 -571.7731 246.369
203.7688 -556.605 243.4381
207.6775 -553.0168 239.0815
197.9625 -548.0575 245.0412
178.3913 -566.9887 250.3878
177.3444 -545.0912 247.675
162.4806 -528.2875 243.2887
195.7075 -569.8031 249.7
186.1162 -583.355 253.3284
200.6925 -569.7618 247.6081
188.8425 -589.57 250.369
206.0262 -582.0931 246.8262
197.1475 -599.75 250.004
221.8425 -600.5988 247.6525
188.1937 -596.0431 252.3209
186.7819 -612.4069 251.4381
176.7069 -602.9375 253.4581
170.0406 -579.5313 252.2903
202.4444 -611.2043 249.2481
195.2619 -627.5031 249.0603
195.3313 -630.7156 250.11
162.5481 -612.6106 253.2615
151.7162 -579.1713 253.3921
165.8613 -577.5938 252.914
204.5981 -625.2062 247.7065
197.8275 -619.4225 247.3437
163.4325 -619.3137 251.4806
215.4262 -629.5456 246.6668
146.6569 -596.5887 253.0381
139.7612 -605.8506 253.9559
155.7419 -615.3712 254.2165
144.0456 -621.1318 252.9181
137.4713 -642.475 250.2121
151.3913 -654.5212 247.239
195.7375 -649.0587 248.2484
215.7487 -651.3287 245.2662
230.6287 -604.2913 247.7215
122.5925 -622.2587 251.1596
169.3512 -659.5112 247.0809
186.3662 -676.575 244.4584
188.1275 -666.01 245.305
114.2919 -645.0181 247.59
124.6256 -635.5906 249.4862
176.3012 -698.1 240.4018
192.0556 -694.1312 241.6021
239.16 -607.5143 246.5453
227.6394 -589.8731 247.2562
151.5619 -518.7169 246.8343
144.2044 -531.2181 249.4653
156.0131 -529.3762 242.1824
155.76 -536.2425 246.7531
167.5813 -553.9662 250.3278
154.1725 -544.5625 248.7031
137.0381 -567.6169 251.945
144.0625 -548.1862 250.4621
136.2737 -548.345 252.6437
138.4112 -554.8956 253.5965
123.7225 -558.5 252.1331
134.8619 -570.6762 253.4715
130.7337 -588.2394 254.0856
108.2194 -572.7681 249.1665
114.9394 -582.995 250.9162
102.8925 -578.02 246.3943
110.1987 -597.7018 249.3
99.50063 -599.5 247.9115
110.54 -612.6425 248.8287
103.8456 -614.8893 248.4921
98.92625 -622.2106 246.4009
88.8725 -618.9631 243.1065
89.67937 -632.3994 245.1462
85.90375 -646.7906 242.0318
81.11063 -635.7213 239.7881
83.90125 -641.4975 235.6075
78.0575 -650.725 239.0156
83.655 -652.7562 237.7696
92.71875 -654.4518 240.6906
228.7419 -528.6894 170.91
225.5731 -531.1337 170.6975
225.6175 -522.3181 168.7534
221.8212 -530.485 164.2253
214.7887 -526.7581 165.3812
213.345 -550.6869 162.4537
226.1769 -520.7618 170.7822
203.9931 -517.0087 165.1934
184.1181 -507.8494 163.9334
174.5938 -514.4344 158.3909
184.1106 -512.0662 160.8775
164.2762 -517.4925 160.0128
166.8537 -532.5925 157.0424
177.7081 -525.1987 158.4228
182.8306 -520.7831 155.9718
152.1312 -518.4606 158.9803
178.3775 -535.6418 155.894
199.3512 -528.7994 160.0275
184.3956 -537.5313 155.7981
209.6319 -542.4012 159.819
178.9331 -562.9163 151.555
190.5 -546.2906 156.0512
199.215 -549.48 156.8778
163.1856 -546.3162 153.2556
185.3313 -557.9113 155.6418
159.5806 -561.0606 150.7056
208.9825 -553.4106 161.8334
203.3669 -553.945 157.6587
191.98 -574.5156 151.9146
182.6537 -566.3406 151.5268
212.8175 -560.6563 159.1453
212.5481 -570.8725 158.0865
179.6738 -569.315 155.7793
181.2275 -575.7737 151.7146
212.8375 -580.2194 157.6081
224.8069 -598.4831 161.3356
208.5875 -580.8619 160.8481
200.3138 -573.9838 154.915
208.3075 -593.915 158.009
199.5319 -588.7056 158.9806
200.3613 -599.3237 155.5928
192.6931 -596.2325 153.0971
192.9238 -589.415 154.5656
204.1588 -610.2106 158.4268
180.4875 -605.0743 149.8943
181.6256 -613.8925 153.5178
199.5488 -626.3168 158.2275
202.6162 -615.5831 161.215
215.4256 -626.7512 162.6034
215.125 -637.2969 162.549
195.9975 -658.6893 158.6268
228.6544 -600.2431 162.5843
218.195 -621.515 164.9278
227.5325 -594.3463 165.6768
233.2925 -588.3112 162.685
234.0625 -580.7844 164.7453
167.1137 -651.8481 153.6353
189.4194 -663.1844 158.649
166.5681 -673.6575 157.064
187.4906 -677.5625 160.9665
183.2075 -682.2938 159.7665
139.0894 -638.3094 150.0553
160.6594 -643.3831 152.3787
144.1812 -630.295 148.1065
89.76125 -630.9788 150.6937
118.9819 -612.3806 147.0965
116.3669 -589.885 145.3218
134.105 -656.6525 153.7734
107.8319 -657.185 153.4193
168.74 -611.5625 150.6515
123.1669 -667.9156 155.6634
111.6656 -666.345 156.8784
94.51187 -649.5806 154.2903
90.5475 -640.6056 154.9021
112.3687 -666.9468 159.8622
84.36187 -617.6625 155.8631
88.00375 -617.2037 150.7646
94.8325 -612.34 147.7209
88.29375 -609.9456 147.874
85.71938 -610.9262 154.8431
92.86625 -610.4875 146.485
85.08 -601.7737 153.9631
87.25 -586.2631 147.3331
92.38812 -596.5775 145.7009
104.3213 -586.6038 143.7725
92.58562 -567.6038 146.8503
103.12 -569.7744 146.0456
92.95062 -561.1837 149.8009
106.8487 -548.7444 150.6946
106.0369 -554.8431 146.4118
114.8288 -580.3006 145.1443
115.1431 -547.1056 154.1965
113.9819 -538.45 153.2112
128.6787 -533.7394 150.4203
133.6162 -528.4238 158.1237
127.82 -530.0131 153.95
139.6819 -527.9781 155.3546
137.965 -535.7225 150.574
122.59 -553.8887 147.9872
117.8988 -562.5406 145.619
117.1825 -580.7194 147.1893
125.1 -556.3588 146.9275
126.9 -574.3581 143.2203
134.6875 -565.5325 146.5534
128.7494 -589.5256 145.5603
130.0475 -579.5718 142.8534
140.3425 -572.7556 147.1675
138.085 -585.9019 148.1218
138.4375 -591.4713 145.88
143.625 -558.445 149.8281
140.8712 -589.1506 144.4865
150.285 -589.55 148.3121
147.7019 -603.7256 147.1275
162.9312 -606.2068 148.414
164.225 -603.2469 150.1725
149.7838 -595.3962 150.7309
162.1431 -588.635 148.9228
154.2975 -573.6638 150.1034
149.7419 -565.1368 152.755
169.7294 -597.8406 152.57
174.9856 -586.07 151.2084
158.3675 -557.6475 154.7993
154.5387 -552.005 153.0606
153.2781 -543.5262 152.6834
146.3181 -529.2819 151.2546
151.79 -533.11 153.9893
154.33 -526.1731 156.5621
161.9656 -528.6931 160.3447
271.3306 -641.2137 220.5821
273.7012 -648.8687 223.679
269.7381 -654.7863 224.0775
272.6762 -659.4287 229.3243
240.0325 -575.4156 171.2456
246.6413 -570.5825 170.7221
239.0887 -563.05 168.8971
236.5975 -556.4425 167.3671
233.6237 -537.4037 166.209
236.6281 -537.3275 167.4731
233.2725 -554.4637 170.2596
194.4431 -700.24 168.829
204.7063 -702.8125 171.4203
1057.491 -405.91 111.4628
1150.585 -386.6344 132.6606
1115.261 -374.5462 110.189
1118.664 -360.5469 83.35215
1094.319 -420.4294 131.9587
1041.374 -441.9962 112.5243
1035.816 -454.3075 123.2753
1022.945 -402.2456 76.42965
1005.063 -410.2506 101.1865
1052.101 -379.8756 84.49965
997.4406 -457.085 126.0321
944.785 -464.4175 101.129
1009.499 -468.7956 128.3178
957.0331 -500.0112 113.2456
943.7081 -568.7037 93.85996
951.275 -505.2513 111.0753
957.2125 -571.7787 115.1596
943.3656 -640.6075 101.8884
962.4831 -605.0762 125.3003
974.7838 -651.4475 135.4556
972.9719 -699.9369 116.3771
1006.449 -719.6418 143.9584
980.5437 -422.0969 54.44902
923.215 -460.5406 63.63058
925.49 -466.2719 25.59809
899.3681 -500.4312 51.35809
913.0512 -487.825 81.25684
909.3312 -541.2294 71.64965
902.5081 -553.3156 46.6034
909.4894 -562.9587 82.96558
925.5431 -628.9688 45.27058
929.7875 -629.0693 84.67902
989.7631 -728.4493 53.31465
952.6837 -680.8694 71.61621
956.3375 -693.1312 85.8584
974.275 -696.0494 99.92464
1005.253 -752.4031 73.54496
1004.271 -751.915 85.33746
1000.541 -754.1531 105.1584
1011.831 -746.0037 117.9168
971.995 -498.9694 109.2056
1108.604 -482.1019 156.7378
1028.689 -497.3425 120.2106
973.8718 -516.2568 135.5884
998.8156 -565.435 153.9315
1020.815 -520.3744 112.0912
1039.315 -535.9962 142.2468
1117.083 -532.27 173.3228
1062.051 -557.8831 156.5618
1053.359 -598.805 165.8003
1037.404 -625.5712 177.0484
1047.206 -686.27 174.0343
713.1112 -3.265 19.43184
714.7037 -8.131875 19.31496
720.6987 -3.221875 21.42027
709.2625 23.46625 28.54246
708.2881 28.53812 28.30715
713.7769 27.05125 33.42027
709.1162 40.26563 29.2409
703.955 36.58562 24.75465
685.3737 58.02562 32.5859
691.0875 42.25312 23.90309
708.1256 46.0625 33.94215
682.14 43.855 23.75465
680.9994 46.5825 22.32808
679.9844 52.58312 27.71152
670.215 57.485 25.26621
676.5181 55.2075 34.01152
701.6881 49.1875 42.38465
694.15 54.97125 41.8334
672.4537 48.50687 42.91152
703.5787 40.44125 48.40934
690.3463 32.41813 51.36934
709.4244 19.24875 48.44527
672.8431 34.57125 48.23246
676.2894 19.70625 53.95902
692.7325 5.285625 47.05652
680.5881 2.91625 47.24621
701.5481 2.444375 36.94434
705.8637 9.000625 40.30215
705.9612 18.54625 33.88215
701.0413 13.55188 28.01152
689.74 0.645625 32.01308
691.7112 8.5725 26.57434
691.2325 5.66625 41.46402
683.3787 2.658125 40.82371
679.5181 -0.483125 31.52277
678.925 0.45875 35.47934
714.7306 29.85625 29.08402
717.8081 32.82875 25.66496
707.7087 46.68562 26.16965
735.0775 40.11187 16.38121
717.9269 58.2 19.96527
694.5887 57.42875 17.08121
705.0525 66.08562 13.52246
677.12 47.11312 19.6959
676.1356 58.32625 13.42184
668.7518 60.6125 29.43965
685.8412 61.71812 14.19215
678.6981 66.50125 8.081211
682.4312 72.205 6.314648
671.9719 72.31313 20.89965
672.85 85.03812 15.25434
691.1918 86.4125 -3.640039
680.2256 73.84812 1.993086
689.49 99.33375 -8.463476
705.8281 108.0831 -11.65004
690.4819 133.2612 -21.84598
674.925 106.2188 -9.929727
659.7425 113.3469 -13.3666
673.9331 134.0163 -23.52254
659.5056 134.0644 -22.71941
641.46 132.985 -19.45441
638.9231 110.0156 -9.131601
628.4625 123.9506 -15.52035
623.9756 127.9819 -19.46754
625.4506 112.9844 -12.22473
617.1625 124.435 -20.47848
625.8488 102.4975 -9.890038
605.8912 103.7987 -9.479414
612.9656 89.39625 -6.019102
610.56 122.3637 -19.06191
599.1256 108.5994 -12.29348
580.5112 104.4725 -14.61441
586.2537 94.83437 -6.713476
570.6287 95.72562 -14.01191
571.4575 73.03812 -2.031601
560.5363 86.07 -11.3891
557.5944 81.5675 -12.5891
554.4493 78.85 -11.03785
590.6837 99.51563 -6.032539
557.8056 65.26563 -4.274101
544.2693 64.59624 -8.766602
560.5106 56.8425 -1.215976
535.66 48.33625 -7.417851
560.7906 64.69062 -0.712539
544.98 37.785 0.352148
565.8218 51.9625 7.456211
559.4468 47.52437 -0.615977
564.9163 37.24875 2.298086
578.0575 54.21125 10.70121
577.8987 37.6725 2.455898
575.1638 20.645 2.573398
595.1162 29.18312 5.953086
591.4788 41.29812 4.053086
592.4088 15.425 4.470898
588.9044 51.37 9.898398
596.0388 60.16625 1.365273
603.7894 24.72125 5.963086
598.0287 75.10562 2.441211
602.6275 56.52625 3.906211
588.3625 83.84687 -2.310977
589.5481 89.6325 -0.520977
599.2675 81.80937 -0.551289
600.7338 92.87563 0.159648
604.3994 89.42937 -3.240351
606.4644 68.58875 -0.751289
606.5881 49.38688 3.440586
609.0762 42.08375 5.787773
607.77 70.02438 10.77684
605.9381 57.62687 13.24527
611.7131 46.83562 12.52184
617.8969 73.86938 -0.579414
607.7875 64.78875 16.10121
616.5668 75.105 12.71965
631.1219 67.43813 14.59496
614.8737 58.4875 19.17215
618.2037 47.04937 14.32184
612.0112 28.75687 12.5909
620.49 79.31313 -1.831289
628.1737 84.93813 -3.571914
625.6144 83.28374 5.092461
625.4975 77.295 12.23559
632.985 80.32625 -1.762539
622.965 56.97937 20.0259
629 73.96625 9.447773
629.5988 82.70438 6.465899
636.4525 84.60125 -1.401914
637.1887 73.0875 18.0884
641.8275 77.56125 27.27277
637.3594 63.35 23.52934
629.3762 67.1475 17.43152
636.2094 95.26187 7.219023
642.7162 93.23062 -2.772851
632.2593 97.83375 -3.679726
640.1943 102.6231 -8.008789
645.9443 96.75437 11.31871
660.1756 96.04874 -3.265039
651.9543 101.5831 -3.000664
656.035 112.1681 -8.744414
659.695 105.4431 -10.88723
671.2531 79.25312 0.117461
665.4906 95.21812 15.9809
652.0413 100.0144 13.92684
662.6094 95.04 21.32527
653.06 88.05375 26.60809
657.1088 65.23375 33.13652
652.4856 66.93625 31.28746
648.7169 80.36875 26.9409
643.1744 61.91187 31.01746
642.7525 56.63812 25.46027
632.5406 60.3175 26.80965
634.5806 50.465 29.90309
625.2618 55.60875 25.26434
632.6537 43.12687 29.43308
623.225 49.66063 19.61777
622.4568 44.70375 25.87277
625.99 36.12 31.04402
620.895 34.68187 19.05871
616.4281 22.30875 14.19965
623.3818 27.36562 27.55402
620.5825 17.91375 35.63652
620.8293 16.05187 24.90871
615.2506 21.8825 32.59121
609.95 18.11625 13.04121
618.8556 12.70375 20.20965
603.6237 12.0525 7.273398
602.6887 17.82875 20.57371
597.4981 6.9075 12.4084
603.9919 15.86625 5.287461
744.2537 -64.18 32.84715
746.5768 -64.84062 21.50246
742.2506 -54.285 26.08715
742.6762 -73.9775 31.19683
725.87 -83.12 39.14402
736.8475 -89.72375 29.69652
730.43 -90.28 28.8634
728.4113 -68.66312 43.73215
741.9587 -44.51812 29.59308
742.0444 -40.31875 22.54402
738.4113 -38.38 29.36152
738.4368 -37.0875 18.85277
725.4188 -57.05687 39.27496
741.9856 -33.8275 26.77059
747.8513 -32.275 16.48746
708.0787 -83.72688 31.32309
720.3131 -85.52062 20.20934
713.1162 -62.97125 42.31215
712.4962 -77.165 39.92465
707.1943 -57.2275 39.1684
718.4862 -41.66375 31.9359
735.5262 -37.135 34.05496
724.3312 -21.995 39.97621
717.9406 -49.91 37.36715
714.5294 -39.60062 27.65215
701.1 -52.75187 32.73933
702.3569 -62.45625 33.56121
715.9088 -24.72625 36.03215
725.3312 -12.61 32.60152
713.2618 -16.955 30.07871
712.7006 -28.08375 28.96246
720.6212 6.724375 27.30684
707.6575 11.30312 30.60152
726.1806 12.12625 27.02965
717.1569 -8.413125 26.23621
710.155 -18.07937 26.80246
707.4213 -2.403125 23.77277
701.3419 -4.2025 24.68933
705.2944 -8.4425 26.04402
699.2012 3.02625 23.96934
702.7188 -14.81875 28.7434
703.7975 -13.01 25.9509
688.6681 -7.3525 30.14215
678.15 -11.7525 30.6759
689.4269 -14.56625 30.27371
696.0519 -26.23438 29.48902
713.5118 21.0325 29.3884
716.9188 26.84937 29.0659
696.1 -23.28625 31.80777
685.5662 -22.465 29.42027
668.4537 -27.79812 31.57215
667.2706 -13.94875 32.57527
651.8875 -22.87875 34.01308
694.8637 -40.40812 29.37777
671.7631 -40.1925 32.39871
668.5662 -30.63312 37.79684
661.3775 -39.16187 44.17059
654.2543 -36.9025 43.83121
644.7344 -17.63187 30.03809
640.3712 -30.99 35.11402
636.2981 -24.55 32.38215
630.4656 -13.69875 36.12277
624.8637 -17.38313 41.16684
630.345 -37.57125 42.51934
636.5168 -30.345 28.58965
616.76 -13.82687 42.29152
616.1825 -2.336875 45.75558
605.9543 -10.63688 49.05121
614.3725 5.911875 39.89902
609.2325 19.07 32.69059
643.6613 -42.05687 38.67465
638.2244 -36.90437 28.4634
632.2725 -41.94437 27.08121
651.82 -49.35125 36.45371
629.6925 -40.42125 35.03621
627.6512 -51.9325 32.98183
636.8362 -46.51875 38.89277
629.3362 -63.12375 31.96715
643.5438 -51.2225 36.06496
641.3569 -49.8575 38.51059
633.7469 -68.475 35.48496
635.2219 -77.06125 33.64027
641.7838 -73.21687 34.66746
638.8612 -83.68938 25.6084
654.7938 -71.20187 29.59777
625.4088 -79.23375 27.8509
621.9393 -71.525 29.05527
615.3193 -83.33 26.47152
622.6175 -62.2525 31.92215
622.3381 -56.7475 42.30152
612.3669 -55.54187 48.6809
615.0737 -66.71437 41.60027
660.66 -53.24125 33.68433
622.19 -32.53188 49.09277
667.1119 -50.845 35.21027
664.2543 -55.36625 29.22652
662.4387 -62.505 29.79621
673.5681 -62.6925 28.22715
683.2394 -50.95375 30.45902
613.1437 -22.2325 47.00684
617.5712 -37.53938 53.72621
596.645 -13.65562 59.25027
589.5793 -7.26875 55.15465
595.8331 -4.5775 43.14558
588.5931 6.401875 35.16715
585.9037 5.393125 47.40715
579.4462 11.20313 36.60496
580.6512 4.55125 50.73058
604.3262 14.43812 36.82402
602.6106 14.0325 28.95496
587.9719 9.086249 25.6859
592.03 17.55875 12.6009
585.05 13.24312 20.58246
581.1162 20.48875 9.049961
574.8237 13.16625 15.24246
567.7131 19.01437 7.164336
577.6531 14.39437 23.00496
564.3 14.75312 12.42777
560.73 8.098125 7.863398
567.6131 3.703125 18.5584
563.1156 -3.531875 12.05934
554.715 5.615 4.259023
545.0494 -3.3175 7.721523
564.0731 -8.15875 12.08465
573.5456 7.38875 22.94871
562.3825 -0.33875 19.75496
556.7175 -10.21812 17.98059
552.8818 -17.785 11.95809
573.2056 1.6225 33.05027
572.4594 -4.52625 40.80871
557.2169 -20.67062 24.33809
550.0994 -21.36187 14.20371
552.7288 -33.36375 33.16371
544.7963 -47.485 14.19621
549.3394 -36.9025 26.14652
558.1912 -19.29125 31.97996
550.8969 -54.2175 24.05934
561.835 -47.60375 35.90496
556.4969 -65.80563 25.26996
577.7875 -68.36063 24.9384
580.4194 -80.2 25.49715
581.735 -69.85375 37.18902
596.0488 -84.60125 27.99402
570.3344 -71.68 24.08027
609.3356 -89.56812 27.23777
604.2387 -86.59812 33.0534
609.3456 -69.33187 44.27871
595.45 -65.1375 39.91496
650.4412 -76.24437 26.91965
659.6331 -73.50375 24.83933
670.2881 -73.64938 26.28902
673.7 -65.63125 32.10246
671.6325 -79.73687 23.96934
678.2787 -72.43188 26.04371
685.2687 -67.62625 31.51871
682.0031 -77.01937 25.09121
684.4 -53.8525 35.97402
693.96 -63.63437 25.76965
694.7981 -47.31812 28.40027
695.7643 -50.76125 32.08777
699.7518 -53.01 26.62152
694.2775 -71.19312 24.18559
696.4694 -72.48937 28.0634
707.9081 -84.29375 22.63184
642.4294 67.01688 36.33402
633.4375 57.33062 34.12027
622.1769 44.925 39.30527
632.7994 62.38313 40.95715
625.6256 45.3475 47.27371
625.7543 28.60812 56.8309
626.2662 44.21312 57.9584
619.7456 28.88 46.08496
616.1906 13.97375 44.0409
616.7612 0.61375 51.87621
619.9744 -1.50875 53.44027
619.8619 -12.98312 54.6409
624.7725 12.47375 59.6084
632.8538 7.736875 66.49309
625.8181 2.05875 68.80152
624.2375 -7.62125 64.35464
639.2094 -17.8175 71.11746
638.5444 -9.885625 72.76027
625.6231 -18.145 54.81433
633.9525 -27.515 46.87246
633.2306 -19.42875 66.35871
639.1819 -26.95062 55.90027
640.2025 -31.53187 47.68715
641.3412 -23.80437 65.63589
632.4262 22.99063 64.39121
636.6038 6.58375 71.14214
642.805 20.28938 70.46934
645.3362 9.49875 71.03371
655.4637 21.9225 62.49152
646.3606 33.60625 65.64746
658.3431 3.890625 65.57465
644.5787 42.21875 64.36121
653.4006 -13.87 67.02934
666.1756 -16.0725 57.86934
665.1019 -9.296249 60.48933
672.5681 6.836875 57.5059
660.0931 -23.79875 50.98433
652.7338 -28.85437 48.45152
650.5975 -31.1325 42.88902
675.7693 -24.49 42.10621
672.1112 24.01125 56.90215
660.4194 49.98687 54.85527
671.3875 -10.17062 57.62996
678.7275 -14.63062 47.80871
652.4637 53.56313 57.80402
632.5988 48.90562 54.75996
645.8212 61.55562 50.12027
637.3706 61.63562 43.93527
656.1431 59.53812 43.64746
661.36 56.245 41.10683
674.3325 58.48063 34.46183
645.39 -20.58813 38.12402
